-0.9844 3.8010 1.2323 186 194 191
-0.9923 3.7930 1.2297 185 194 189
-0.9989 3.7800 1.2255 188 197 192
-1.0062 3.7700 1.2222 184 193 186
-1.0137 3.7610 1.2193 183 192 185
-1.0220 3.7550 1.2174 185 193 186
-1.0294 3.7460 1.2145 187 194 190
-1.0365 3.7360 1.2112 187 196 191
-1.0450 3.7310 1.2096 185 194 189
-1.0523 3.7220 1.2067 184 193 188
-1.0592 3.7120 1.2034 185 194 189
-1.0647 3.6970 1.1986 186 194 187
-1.0709 3.6850 1.1947 189 197 190
-1.0771 3.6730 1.1908 186 194 187
-1.0841 3.6640 1.1879 183 191 184
-1.0905 3.6530 1.1843 186 194 187
-1.0983 3.6470 1.1824 185 194 187
-1.1055 3.6390 1.1798 187 195 188
-1.1127 3.6310 1.1772 188 196 189
-1.1204 3.6250 1.1752 185 193 186
-1.1277 3.6180 1.1730 184 192 185
-1.1357 3.6130 1.1713 185 193 186
-1.1417 3.6020 1.1678 188 196 189
-1.1490 3.5950 1.1655 186 194 187
-1.1556 3.5860 1.1626 183 191 184
-1.1621 3.5770 1.1597 184 192 185
-1.1683 3.5670 1.1564 186 194 187
-1.1740 3.5560 1.1529 185 193 186
-1.1797 3.5450 1.1493 191 200 195
-1.1854 3.5340 1.1457 199 208 203
-1.1913 3.5240 1.1425 193 201 198
-1.1979 3.5160 1.1399 192 200 197
-1.2044 3.5080 1.1373 187 197 194
-1.2112 3.5010 1.1350 193 203 202
-1.2170 3.4910 1.1318 197 207 204
-1.2241 3.4850 1.1298 199 212 208
-1.2308 3.4780 1.1276 196 209 205
-1.2367 3.4690 1.1247 193 206 202
-1.2441 3.4640 1.1230 192 205 201
-1.2514 3.4590 1.1214 193 203 200
-1.2583 3.4530 1.1195 194 204 201
-1.2619 3.4380 1.1146 198 209 204
-1.2680 3.4300 1.1120 189 198 191
-1.2741 3.4220 1.1094 184 192 185
-1.2809 3.4160 1.1075 181 189 181
-1.2876 3.4100 1.1055 185 194 182
-1.2932 3.4010 1.1026 186 196 181
-1.3002 3.3960 1.1010 183 193 178
-1.3053 3.3860 1.0977 180 190 173
-1.3119 3.3800 1.0958 178 188 173
-1.3189 3.3750 1.0942 185 195 180
-1.3258 3.3700 1.0926 181 191 176
-1.3315 3.3620 1.0900 176 186 171
-1.3376 3.3550 1.0877 179 190 175
-1.3436 3.3480 1.0854 182 193 178
-1.3492 3.3400 1.0828 187 200 185
-1.3543 3.3310 1.0799 186 199 184
-1.3582 3.3190 1.0760 187 200 185
-0.5760 3.7510 1.2062 195 204 192
-0.5872 3.7590 1.2087 198 207 196
-0.5979 3.7640 1.2103 198 207 196
-0.6084 3.7680 1.2116 193 202 191
-0.6200 3.7780 1.2149 196 205 194
-0.6315 3.7870 1.2177 191 199 191
-0.6419 3.7900 1.2187 193 201 193
-0.6519 3.7900 1.2187 193 201 193
-0.6617 3.7890 1.2184 186 194 187
-0.6726 3.7940 1.2200 190 198 191
-0.6835 3.7990 1.2216 194 202 195
-0.6961 3.8130 1.2261 192 200 193
-0.7089 3.8280 1.2309 193 202 197
-0.7209 3.8380 1.2341 201 210 205
-0.7318 3.8420 1.2354 204 216 215
-0.7430 3.8480 1.2374 209 223 222
-0.7542 3.8530 1.2390 204 216 217
-0.7657 3.8600 1.2412 199 212 215
-0.7763 3.8620 1.2419 201 212 217
-0.7885 3.8720 1.2451 202 211 216
-0.7995 3.8760 1.2464 205 214 219
-0.8106 3.8800 1.2476 205 214 219
-0.8204 3.8780 1.2470 207 216 221
-0.8310 3.8800 1.2476 208 217 220
-0.8417 3.8820 1.2483 206 217 220
-0.8532 3.8880 1.2502 204 215 218
-0.8657 3.8980 1.2534 203 214 217
-0.8782 3.9080 1.2567 198 210 211
-0.8894 3.9120 1.2579 196 208 209
-0.8993 3.9100 1.2573 195 206 209
-0.9084 3.9050 1.2557 195 204 206
-0.9171 3.8980 1.2534 194 203 205
-0.9245 3.8860 1.2496 191 198 200
-0.9311 3.8710 1.2448 196 203 205
-0.9394 3.8630 1.2422 200 208 207
-0.9474 3.8540 1.2393 206 214 213
-0.9553 3.8450 1.2364 205 213 210
-0.9622 3.8320 1.2322 205 212 211
-0.9697 3.8220 1.2290 193 200 199
-0.9780 3.8150 1.2267 185 192 191
-0.9849 3.8030 1.2229 187 194 193
-0.9937 3.7980 1.2213 189 196 193
-0.9994 3.7820 1.2161 188 196 193
-1.0062 3.7700 1.2123 186 193 189
-1.0129 3.7580 1.2084 185 192 188
-1.0217 3.7540 1.2071 188 195 192
-1.0297 3.7470 1.2049 187 194 191
-1.0357 3.7330 1.2004 189 196 193
-1.0427 3.7230 1.1972 186 195 190
-1.0494 3.7120 1.1936 184 193 188
-1.0572 3.7050 1.1914 184 193 188
-1.0644 3.6960 1.1885 186 193 189
-1.0706 3.6840 1.1846 183 191 184
-1.0771 3.6730 1.1811 186 194 187
-1.0841 3.6640 1.1782 185 193 186
-1.0914 3.6560 1.1756 184 192 185
-1.0989 3.6490 1.1734 182 190 183
-1.1049 3.6370 1.1695 184 192 185
-1.1120 3.6290 1.1669 187 195 188
-1.1198 3.6230 1.1650 186 194 187
-1.1274 3.6170 1.1631 183 191 184
-1.1348 3.6100 1.1608 182 190 183
-1.1414 3.6010 1.1579 183 192 185
-1.1490 3.5950 1.1560 182 191 184
-1.1553 3.5850 1.1528 184 192 185
-1.1615 3.5750 1.1496 184 191 187
-1.1679 3.5660 1.1467 185 194 189
-1.1744 3.5570 1.1438 193 202 197
-1.1801 3.5460 1.1402 194 203 198
-1.1861 3.5360 1.1370 184 194 191
-1.1927 3.5280 1.1345 185 195 194
-1.1989 3.5190 1.1316 189 199 198
-1.2058 3.5120 1.1293 192 202 201
-1.2112 3.5010 1.1258 197 209 208
-1.2180 3.4940 1.1235 199 209 208
-1.2255 3.4890 1.1219 198 211 207
-1.2322 3.4820 1.1197 194 207 203
-1.2389 3.4750 1.1174 192 205 200
-1.2455 3.4680 1.1152 196 209 204
-1.2529 3.4630 1.1136 196 207 200
-1.2594 3.4560 1.1113 193 202 195
-1.2638 3.4430 1.1071 179 189 180
-1.2691 3.4330 1.1039 174 183 172
-1.2756 3.4260 1.1017 186 195 184
-1.2824 3.4200 1.0997 181 190 178
-1.2887 3.4130 1.0975 183 191 176
-1.2939 3.4030 1.0943 185 194 182
-1.2991 3.3930 1.0911 185 195 180
-1.3030 3.3800 1.0869 179 189 172
-1.3088 3.3720 1.0843 184 194 177
-1.3173 3.3710 1.0840 184 194 177
-1.3246 3.3670 1.0827 183 193 176
-1.3299 3.3580 1.0798 172 182 165
-1.3360 3.3510 1.0775 174 185 168
-1.3432 3.3470 1.0763 174 188 170
-1.3500 3.3420 1.0747 179 190 175
-1.3552 3.3330 1.0718 189 200 185
-1.3607 3.3250 1.0692 189 200 185
-1.3661 3.3170 1.0666 189 199 184
-0.5765 3.7540 1.1972 186 196 181
-0.5875 3.7610 1.1994 197 206 194
-0.5974 3.7610 1.1994 195 204 192
-0.6084 3.7680 1.2017 195 204 193
-0.6198 3.7770 1.2046 195 204 193
-0.6315 3.7870 1.2077 197 205 197
-0.6411 3.7850 1.2071 190 198 190
-0.6512 3.7860 1.2074 190 198 190
-0.6619 3.7900 1.2087 184 192 185
-0.6731 3.7970 1.2109 188 196 189
-0.6837 3.8000 1.2119 190 198 191
-0.6950 3.8070 1.2141 192 200 193
-0.7072 3.8190 1.2179 188 196 189
-0.7190 3.8280 1.2208 192 200 193
-0.7308 3.8370 1.2237 192 202 199
-0.7430 3.8480 1.2272 193 203 200
-0.7549 3.8570 1.2301 199 209 208
-0.7663 3.8630 1.2320 203 215 216
-0.7769 3.8650 1.2326 206 215 218
-0.7877 3.8680 1.2336 202 211 214
-0.7989 3.8730 1.2352 205 212 215
-0.8106 3.8800 1.2374 202 211 216
-0.8219 3.8850 1.2390 200 209 214
-0.8321 3.8850 1.2390 205 214 217
-0.8410 3.8790 1.2371 204 215 218
-0.8519 3.8820 1.2380 204 217 220
-0.8646 3.8930 1.2415 203 216 219
-0.8780 3.9070 1.2460 203 216 219
-0.8890 3.9100 1.2470 201 214 217
-0.8991 3.9090 1.2466 204 215 218
-0.9082 3.9040 1.2451 203 212 214
-0.9166 3.8960 1.2425 202 211 213
-0.9231 3.8800 1.2374 198 205 207
-0.9307 3.8690 1.2339 192 200 199
-0.9399 3.8650 1.2326 192 202 201
-0.9479 3.8560 1.2297 189 199 198
-0.9548 3.8430 1.2256 195 203 202
-0.9617 3.8300 1.2215 197 205 204
-0.9697 3.8220 1.2189 199 207 206
-0.9770 3.8110 1.2154 203 210 209
-0.9834 3.7970 1.2109 203 210 209
-0.9908 3.7870 1.2077 190 198 197
-0.9979 3.7760 1.2042 189 197 194
-1.0051 3.7660 1.2010 191 198 195
-1.0129 3.7580 1.1985 187 194 191
-1.0212 3.7520 1.1966 187 194 191
-1.0291 3.7450 1.1943 182 189 185
-1.0354 3.7320 1.1902 187 194 190
-1.0419 3.7200 1.1864 187 196 189
-1.0477 3.7060 1.1819 185 194 187
-1.0566 3.7030 1.1810 184 193 186
-1.0641 3.6950 1.1784 186 194 187
-1.0706 3.6840 1.1749 186 194 187
-1.0762 3.6700 1.1704 179 187 180
-1.0838 3.6630 1.1682 185 193 186
-1.0923 3.6590 1.1669 185 193 186
-1.0992 3.6500 1.1640 185 193 186
-1.1052 3.6380 1.1602 185 193 186
-1.1117 3.6280 1.1570 186 194 187
-1.1207 3.6260 1.1564 182 190 183
-1.1284 3.6200 1.1545 183 191 184
-1.1360 3.6140 1.1526 183 191 184
-1.1427 3.6050 1.1497 182 190 183
-1.1503 3.5990 1.1478 184 192 185
-1.1565 3.5890 1.1446 186 193 189
-1.1621 3.5770 1.1408 192 199 195
-1.1689 3.5690 1.1382 195 204 199
-1.1757 3.5610 1.1357 190 199 194
-1.1824 3.5530 1.1331 188 196 193
-1.1891 3.5450 1.1306 194 202 199
-1.1957 3.5370 1.1280 194 204 203
-1.2016 3.5270 1.1248 199 208 210
-1.2065 3.5140 1.1207 199 208 210
-1.2123 3.5040 1.1175 197 209 210
-1.2194 3.4980 1.1156 201 211 210
-1.2276 3.4950 1.1146 198 208 205
-1.2347 3.4890 1.1127 199 210 205
-1.2407 3.4800 1.1098 199 210 203
-1.2455 3.4680 1.1060 192 203 196
-1.2518 3.4600 1.1035 184 196 187
-1.2576 3.4510 1.1006 184 194 183
-1.2645 3.4450 1.0987 180 191 178
-1.2710 3.4380 1.0964 176 186 171
-1.2786 3.4340 1.0952 183 192 180
-1.2861 3.4300 1.0939 180 190 175
-1.2914 3.4200 1.0907 180 190 175
-1.2936 3.4020 1.0850 180 189 177
-1.2964 3.3860 1.0799 178 187 175
-1.3007 3.3740 1.0760 184 194 179
-1.3076 3.3690 1.0744 187 197 182
-1.3150 3.3650 1.0732 181 191 176
-1.3234 3.3640 1.0728 178 188 171
-1.3295 3.3570 1.0706 172 182 165
-1.3388 3.3580 1.0709 167 178 161
-1.3444 3.3500 1.0684 170 181 164
-1.3512 3.3450 1.0668 178 189 174
-1.3539 3.3300 1.0620 186 196 181
-1.3590 3.3210 1.0591 190 200 185
-1.3649 3.3140 1.0569 186 196 181
-1.3720 3.3100 1.0556 190 199 187
-0.5765 3.7540 1.1873 187 197 182
-0.5875 3.7610 1.1895 199 208 196
-0.6081 3.7660 1.1911 199 208 197
-0.6193 3.7740 1.1936 195 204 193
-0.6313 3.7860 1.1974 199 205 197
-0.6408 3.7830 1.1965 198 204 196
-0.6514 3.7870 1.1977 192 198 190
-0.6623 3.7920 1.1993 191 197 189
-0.6740 3.8020 1.2025 188 196 188
-0.6842 3.8030 1.2028 189 197 189
-0.6944 3.8040 1.2031 193 199 191
-0.7067 3.8160 1.2069 191 199 191
-0.7192 3.8290 1.2110 189 197 189
-0.7316 3.8410 1.2148 187 195 188
-0.7434 3.8500 1.2177 188 196 189
-0.7548 3.8560 1.2196 187 195 188
-0.7655 3.8590 1.2205 192 201 196
-0.7767 3.8640 1.2221 194 203 198
-0.7879 3.8690 1.2237 197 205 202
-0.7993 3.8750 1.2256 203 211 208
-0.8106 3.8800 1.2271 207 217 216
-0.8223 3.8870 1.2294 207 217 216
-0.8327 3.8880 1.2297 204 216 217
-0.8430 3.8880 1.2297 200 212 213
-0.8532 3.8880 1.2297 199 212 215
-0.8655 3.8970 1.2325 203 214 217
-0.8778 3.9060 1.2354 200 213 216
-0.8890 3.9100 1.2366 201 214 217
-0.8995 3.9110 1.2370 200 213 216
-0.9075 3.9010 1.2338 203 216 219
-0.9161 3.8940 1.2316 204 218 219
-0.9228 3.8790 1.2268 205 217 218
-0.9309 3.8700 1.2240 201 213 214
-0.9387 3.8600 1.2208 196 208 209
-0.9459 3.8480 1.2170 197 206 208
-0.9528 3.8350 1.2129 195 204 206
-0.9604 3.8250 1.2098 194 203 205
-0.9684 3.8170 1.2072 190 199 201
-0.9759 3.8070 1.2041 191 200 202
-0.9813 3.7890 1.1984 193 202 204
-0.9892 3.7810 1.1958 200 210 209
-0.9965 3.7710 1.1927 202 212 211
-1.0054 3.7670 1.1914 197 205 204
-1.0129 3.7580 1.1886 192 200 199
-1.0206 3.7500 1.1860 191 198 195
-1.0283 3.7420 1.1835 190 197 194
-1.0354 3.7320 1.1803 184 191 187
-1.0419 3.7200 1.1765 186 195 190
-1.0483 3.7080 1.1728 184 193 186
-1.0564 3.7020 1.1709 185 194 187
-1.0632 3.6920 1.1677 185 193 186
-1.0692 3.6790 1.1636 184 192 185
-1.0754 3.6670 1.1598 184 192 185
-1.0833 3.6610 1.1579 184 192 185
-1.0911 3.6550 1.1560 186 194 187
-1.0989 3.6490 1.1541 184 192 185
-1.1046 3.6360 1.1500 182 190 183
-1.1114 3.6270 1.1471 186 194 187
-1.1185 3.6190 1.1446 188 196 189
-1.1271 3.6160 1.1437 185 193 186
-1.1357 3.6130 1.1427 184 191 187
-1.1440 3.6090 1.1414 184 191 187
-1.1512 3.6020 1.1392 189 196 192
-1.1572 3.5910 1.1357 196 203 199
-1.1631 3.5800 1.1323 193 202 197
-1.1696 3.5710 1.1294 188 197 192
-1.1767 3.5640 1.1272 188 196 193
-1.1827 3.5540 1.1240 194 202 201
-1.1894 3.5460 1.1215 198 206 205
-1.1954 3.5360 1.1184 199 209 208
-1.2020 3.5280 1.1158 197 207 206
-1.2085 3.5200 1.1133 196 206 205
-1.2150 3.5120 1.1108 192 205 201
-1.2236 3.5100 1.1101 195 205 202
-1.2304 3.5030 1.1079 198 207 202
-1.2361 3.4930 1.1048 198 207 200
-1.2399 3.4780 1.1000 190 199 192
-1.2444 3.4650 1.0959 185 195 186
-1.2507 3.4570 1.0934 181 192 179
-1.2580 3.4520 1.0918 175 186 173
-1.2660 3.4490 1.0908 181 192 179
-1.2721 3.4410 1.0883 183 193 178
-1.2786 3.4340 1.0861 183 193 178
-1.2854 3.4280 1.0842 185 195 180
-1.2902 3.4170 1.0807 176 186 171
-1.2928 3.4000 1.0753 184 193 181
-1.2960 3.3850 1.0706 182 191 179
-1.3015 3.3760 1.0677 185 194 182
-1.3084 3.3710 1.0662 184 193 181
-1.3142 3.3630 1.0636 177 186 174
-1.3230 3.3630 1.0636 173 183 168
-1.3311 3.3610 1.0630 170 180 163
-1.3420 3.3660 1.0646 172 183 164
-1.3472 3.3570 1.0617 173 184 165
-1.3536 3.3510 1.0598 173 183 166
-1.3552 3.3330 1.0541 189 199 182
-1.3590 3.3210 1.0504 185 195 180
-1.3653 3.3150 1.0485 188 196 181
-1.3724 3.3110 1.0472 188 195 183
0.3027 1.3090 0.4105 113 124 117
-0.5870 3.7580 1.1786 195 204 192
-0.6079 3.7650 1.1808 193 202 191
-0.6192 3.7730 1.1833 195 204 193
-0.6311 3.7850 1.1871 194 203 192
-0.6411 3.7850 1.1871 196 204 196
-0.6514 3.7870 1.1877 192 198 190
-0.6619 3.7900 1.1887 190 198 190
-0.6739 3.8010 1.1921 183 191 183
-0.6844 3.8040 1.1931 191 199 191
-0.6952 3.8080 1.1943 192 201 190
-0.7061 3.8130 1.1959 195 204 193
-0.7186 3.8260 1.2000 196 204 196
-0.7310 3.8380 1.2037 191 199 191
-0.7430 3.8480 1.2069 195 203 196
-0.7544 3.8540 1.2087 191 199 192
-0.7647 3.8550 1.2091 193 201 194
-0.7761 3.8610 1.2109 193 202 195
-0.7875 3.8670 1.2128 191 200 193
-0.7989 3.8730 1.2147 194 203 198
-0.8102 3.8780 1.2163 191 202 197
-0.8217 3.8840 1.2182 196 206 203
-0.8332 3.8900 1.2200 200 212 211
-0.8441 3.8930 1.2210 203 215 214
-0.8550 3.8960 1.2219 203 215 216
-0.8653 3.8960 1.2219 199 210 213
-0.8769 3.9020 1.2238 202 213 216
-0.8876 3.9040 1.2244 200 213 216
-0.8975 3.9020 1.2238 197 210 213
-0.9049 3.8900 1.2200 201 215 216
-0.9138 3.8840 1.2182 198 214 215
-0.9216 3.8740 1.2150 202 216 217
-0.9297 3.8650 1.2122 202 216 217
-0.9365 3.8510 1.2078 202 214 215
-0.9447 3.8430 1.2053 201 212 215
-0.9521 3.8320 1.2018 201 212 215
-0.9614 3.8290 1.2009 196 207 210
-0.9682 3.8160 1.1968 194 205 208
-0.9757 3.8060 1.1937 191 203 204
-0.9808 3.7870 1.1877 193 205 206
-0.9884 3.7780 1.1849 187 199 198
-0.9965 3.7710 1.1827 189 199 198
-1.0054 3.7670 1.1815 187 197 196
-1.0129 3.7580 1.1786 196 206 205
-1.0204 3.7490 1.1758 203 211 208
-1.0278 3.7400 1.1730 202 210 207
-1.0357 3.7330 1.1708 198 207 202
-1.0416 3.7190 1.1664 189 198 193
-1.0480 3.7070 1.1626 183 192 185
-1.0561 3.7010 1.1608 186 195 188
-1.0638 3.6940 1.1586 184 193 186
-1.0701 3.6820 1.1548 186 194 187
-1.0751 3.6660 1.1498 189 197 190
-1.0824 3.6580 1.1473 184 192 185
-1.0902 3.6520 1.1454 183 191 184
-1.0986 3.6480 1.1441 185 193 186
-1.1058 3.6400 1.1416 186 192 185
-1.1117 3.6280 1.1379 186 192 185
-1.1179 3.6170 1.1344 182 189 185
-1.1268 3.6150 1.1338 183 190 186
-1.1351 3.6110 1.1325 186 193 189
-1.1427 3.6050 1.1307 194 201 197
-1.1493 3.5960 1.1278 196 203 199
-1.1562 3.5880 1.1253 187 194 190
-1.1634 3.5810 1.1231 188 195 191
-1.1702 3.5730 1.1206 193 201 198
-1.1773 3.5660 1.1184 195 203 200
-1.1834 3.5560 1.1153 198 206 205
-1.1901 3.5480 1.1128 198 206 205
-1.1957 3.5370 1.1093 198 208 207
-1.2016 3.5270 1.1062 194 204 203
-1.2075 3.5170 1.1031 192 202 199
-1.2150 3.5120 1.1015 193 203 200
-1.2226 3.5070 1.0999 199 210 205
-1.2297 3.5010 1.0980 191 200 193
-1.2350 3.4900 1.0946 187 195 188
-1.2389 3.4750 1.0899 184 193 182
-1.2441 3.4640 1.0864 184 193 182
-1.2518 3.4600 1.0852 179 188 176
-1.2594 3.4560 1.0839 176 186 171
-1.2671 3.4520 1.0827 181 190 178
-1.2728 3.4430 1.0798 180 190 175
-1.2793 3.4360 1.0776 184 194 179
-1.2842 3.4250 1.0742 182 192 177
-1.2887 3.4130 1.0704 184 194 179
-1.2932 3.4010 1.0667 184 193 181
-1.2979 3.3900 1.0632 186 195 183
-1.3042 3.3830 1.0610 184 193 181
-1.3092 3.3730 1.0579 187 196 184
-1.3142 3.3630 1.0548 177 186 174
-1.3223 3.3610 1.0541 169 177 162
-1.3319 3.3630 1.0548 169 177 162
-1.3420 3.3660 1.0557 167 177 160
-1.3468 3.3560 1.0526 172 182 165
-1.3504 3.3430 1.0485 181 191 174
-1.3531 3.3280 1.0438 184 194 179
-1.3582 3.3190 1.0410 189 199 184
-1.3649 3.3140 1.0394 185 195 180
-1.3707 3.3070 1.0372 187 196 184
0.3066 1.3110 0.4077 113 121 114
0.3027 1.3090 0.4071 108 117 110
-0.6179 3.7650 1.1709 197 205 197
-0.6301 3.7790 1.1752 197 206 195
-0.6406 3.7820 1.1762 192 201 190
-0.6518 3.7890 1.1783 189 198 187
-0.6617 3.7890 1.1783 190 199 188
-0.6733 3.7980 1.1811 193 202 191
-0.6835 3.7990 1.1815 191 200 189
-0.6952 3.8080 1.1843 195 204 193
-0.7065 3.8150 1.1864 195 204 193
-0.7188 3.8270 1.1902 195 204 193
-0.7312 3.8390 1.1939 195 204 193
-0.7425 3.8450 1.1958 193 202 191
-0.7538 3.8510 1.1976 190 199 188
-0.7639 3.8510 1.1976 193 202 191
-0.7761 3.8610 1.2007 183 193 182
-0.7879 3.8690 1.2032 186 196 185
-0.7997 3.8770 1.2057 190 200 189
-0.8108 3.8810 1.2070 191 203 194
-0.8217 3.8840 1.2079 186 197 190
-0.8327 3.8880 1.2091 186 200 192
-0.8439 3.8920 1.2104 184 195 188
-0.8550 3.8960 1.2116 190 201 196
-0.8648 3.8940 1.2110 200 210 207
-0.8764 3.9000 1.2129 202 212 209
-0.8867 3.9000 1.2129 208 218 215
-0.8968 3.8990 1.2126 207 219 218
-0.9040 3.8860 1.2085 199 213 212
-0.9128 3.8800 1.2067 195 211 212
-0.9205 3.8690 1.2032 198 214 215
-0.9280 3.8580 1.1998 196 212 214
-0.9348 3.8440 1.1955 197 213 215
-0.9434 3.8380 1.1936 199 212 215
-0.9523 3.8330 1.1920 204 215 218
-0.9622 3.8320 1.1917 204 215 218
-0.9695 3.8210 1.1883 203 214 217
-0.9759 3.8070 1.1839 202 213 216
-0.9811 3.7880 1.1780 200 212 213
-0.9884 3.7780 1.1749 195 207 208
-0.9973 3.7740 1.1737 191 203 204
-1.0054 3.7670 1.1715 188 200 201
-1.0129 3.7580 1.1687 189 198 200
-1.0195 3.7460 1.1650 190 199 201
-1.0280 3.7410 1.1634 189 197 196
-1.0357 3.7330 1.1609 196 204 201
-1.0413 3.7180 1.1563 200 208 205
-1.0483 3.7080 1.1532 198 206 203
-1.0552 3.6980 1.1500 189 198 193
-1.0629 3.6910 1.1479 188 195 191
-1.0689 3.6780 1.1438 184 192 185
-1.0739 3.6620 1.1389 185 193 186
-1.0812 3.6540 1.1364 183 191 184
-1.0887 3.6470 1.1342 183 190 186
-1.0974 3.6440 1.1333 182 189 185
-1.1046 3.6360 1.1308 187 192 188
-1.1105 3.6240 1.1270 187 192 188
-1.1164 3.6120 1.1233 182 189 186
-1.1237 3.6050 1.1211 192 199 196
-1.1323 3.6020 1.1202 194 201 198
-1.1411 3.6000 1.1196 188 195 192
-1.1490 3.5950 1.1180 186 193 190
-1.1553 3.5850 1.1149 189 196 192
-1.1615 3.5750 1.1118 193 200 196
-1.1686 3.5680 1.1096 195 203 200
-1.1767 3.5640 1.1084 196 206 205
-1.1837 3.5570 1.1062 192 202 201
-1.1887 3.5440 1.1022 195 205 204
-1.1950 3.5350 1.0994 195 203 200
-1.2006 3.5240 1.0959 199 208 203
-1.2072 3.5160 1.0934 200 208 201
-1.2137 3.5080 1.0910 195 203 196
-1.2215 3.5040 1.0897 185 193 185
-1.2283 3.4970 1.0875 184 193 182
-1.2329 3.4840 1.0835 186 193 181
-1.2378 3.4720 1.0798 185 192 180
-1.2437 3.4630 1.0770 182 189 177
-1.2521 3.4610 1.0763 182 190 175
-1.2602 3.4580 1.0754 185 193 178
-1.2667 3.4510 1.0732 181 189 174
-1.2736 3.4450 1.0714 175 185 168
-1.2782 3.4330 1.0676 180 190 173
-1.2827 3.4210 1.0639 182 192 177
-1.2872 3.4090 1.0602 184 193 181
-1.2947 3.4050 1.0589 185 194 182
-1.3006 3.3970 1.0564 185 194 182
-1.3057 3.3870 1.0533 186 195 183
-1.3092 3.3730 1.0490 186 195 183
-1.3157 3.3670 1.0471 176 185 173
-1.3238 3.3650 1.0465 173 181 166
-1.3335 3.3670 1.0471 170 178 163
-1.3420 3.3660 1.0468 177 187 172
-1.3468 3.3560 1.0437 176 186 169
-1.3508 3.3440 1.0400 183 193 178
-1.3552 3.3330 1.0365 187 197 182
-1.3611 3.3260 1.0344 189 198 186
-1.3686 3.3230 1.0334 188 197 185
-1.3736 3.3140 1.0306 191 200 188
-1.3782 3.3040 1.0275 188 197 185
0.3020 1.3060 0.4027 109 118 111
-0.6289 3.7720 1.1631 199 208 197
-0.6401 3.7790 1.1653 196 205 194
-0.6518 3.7890 1.1683 196 205 194
-0.6617 3.7890 1.1683 193 202 190
-0.6733 3.7980 1.1711 194 203 191
-0.6835 3.7990 1.1714 193 202 190
-0.6957 3.8110 1.1751 193 202 190
-0.7065 3.8150 1.1764 195 204 193
-0.7188 3.8270 1.1801 194 203 192
-0.7306 3.8360 1.1828 197 206 195
-0.7419 3.8420 1.1847 195 204 193
-0.7530 3.8470 1.1862 191 200 188
-0.7637 3.8500 1.1871 191 200 188
-0.7751 3.8560 1.1890 188 197 185
-0.7861 3.8600 1.1902 179 190 177
-0.7973 3.8650 1.1918 186 197 184
-0.8102 3.8780 1.1958 188 200 189
-0.8217 3.8840 1.1976 188 200 191
-0.8336 3.8920 1.2001 188 199 192
-0.8441 3.8930 1.2004 182 193 186
-0.8548 3.8950 1.2010 189 198 191
-0.8642 3.8910 1.1998 185 194 187
-0.8744 3.8910 1.1998 191 200 195
-0.8847 3.8910 1.1998 188 199 194
-0.8947 3.8900 1.1995 196 206 203
-0.9036 3.8840 1.1976 198 211 207
-0.9119 3.8760 1.1952 199 213 212
-0.9197 3.8660 1.1921 199 213 214
-0.9266 3.8520 1.1878 197 213 214
-0.9338 3.8400 1.1841 199 212 215
-0.9424 3.8340 1.1822 200 211 214
-0.9521 3.8320 1.1816 202 213 216
-0.9632 3.8360 1.1828 202 213 216
-0.9707 3.8260 1.1797 203 214 217
-0.9770 3.8110 1.1751 205 216 219
-0.9813 3.7890 1.1683 204 215 218
-0.9882 3.7770 1.1646 202 214 215
-0.9976 3.7750 1.1640 202 211 213
-1.0059 3.7690 1.1622 203 212 214
-1.0134 3.7600 1.1594 195 204 206
-1.0195 3.7460 1.1551 198 205 207
-1.0283 3.7420 1.1538 187 195 194
-1.0354 3.7320 1.1508 189 197 196
-1.0410 3.7170 1.1461 186 194 191
-1.0463 3.7010 1.1412 187 195 192
-1.0538 3.6930 1.1387 197 206 201
-1.0618 3.6870 1.1369 202 209 205
-1.0680 3.6750 1.1332 199 208 203
-1.0736 3.6610 1.1289 193 201 194
-1.0803 3.6510 1.1258 185 193 186
-1.0887 3.6470 1.1246 185 192 188
-1.0962 3.6400 1.1224 185 192 188
-1.1037 3.6330 1.1202 182 189 185
-1.1099 3.6220 1.1168 187 194 190
-1.1164 3.6120 1.1138 196 203 200
-1.1231 3.6030 1.1110 193 200 197
-1.1294 3.5930 1.1079 188 195 192
-1.1392 3.5940 1.1082 187 194 191
-1.1477 3.5910 1.1073 190 197 194
-1.1546 3.5830 1.1048 191 198 195
-1.1608 3.5730 1.1017 197 204 201
-1.1683 3.5670 1.0999 197 205 204
-1.1767 3.5640 1.0990 197 205 204
-1.1844 3.5590 1.0974 194 204 203
-1.1904 3.5490 1.0943 197 207 206
-1.1957 3.5370 1.0906 202 210 207
-1.1999 3.5220 1.0860 198 205 201
-1.2048 3.5090 1.0820 187 195 188
-1.2112 3.5010 1.0795 184 191 180
-1.2177 3.4930 1.0771 184 191 180
-1.2251 3.4880 1.0755 188 195 183
-1.2308 3.4780 1.0724 187 195 180
-1.2378 3.4720 1.0706 184 191 179
-1.2448 3.4660 1.0687 178 185 173
-1.2525 3.4620 1.0675 179 187 172
-1.2594 3.4560 1.0657 184 192 175
-1.2660 3.4490 1.0635 180 188 171
-1.2732 3.4440 1.0620 177 187 170
-1.2789 3.4350 1.0592 178 188 171
-1.2835 3.4230 1.0555 189 199 184
-1.2884 3.4120 1.0521 188 197 185
-1.2955 3.4070 1.0506 188 197 186
-1.3010 3.3980 1.0478 187 196 185
-1.3057 3.3870 1.0444 185 194 183
-1.3100 3.3750 1.0407 188 197 186
-1.3165 3.3690 1.0388 173 182 170
-1.3242 3.3660 1.0379 180 189 177
-1.3315 3.3620 1.0367 174 184 169
-1.3388 3.3580 1.0354 174 184 169
-1.3448 3.3510 1.0333 180 190 175
-1.3504 3.3430 1.0308 187 196 184
-1.3568 3.3370 1.0290 185 194 182
-1.3627 3.3300 1.0268 187 196 185
-1.3703 3.3270 1.0259 193 202 191
-1.3757 3.3190 1.0234 191 200 189
-1.3782 3.3040 1.0188 189 200 187
0.2492 1.3000 0.3974 111 120 113
-0.6288 3.7710 1.1528 193 202 191
-0.6396 3.7760 1.1544 198 207 196
-0.6516 3.7880 1.1580 196 205 193
-0.6616 3.7880 1.1580 195 204 192
-0.6730 3.7960 1.1605 192 201 189
-0.6835 3.7990 1.1614 191 200 188
-0.6954 3.8090 1.1644 194 203 191
-0.7063 3.8140 1.1660 192 201 190
-0.7188 3.8270 1.1699 195 204 193
-0.7306 3.8360 1.1727 197 206 195
-0.7409 3.8370 1.1730 193 202 191
-0.7518 3.8410 1.1742 194 203 191
-0.7627 3.8450 1.1755 185 194 182
-0.7743 3.8520 1.1776 178 187 175
-0.7856 3.8580 1.1794 174 185 172
-0.7973 3.8650 1.1816 187 198 185
-0.8100 3.8770 1.1852 189 199 188
-0.8219 3.8850 1.1877 187 197 186
-0.8334 3.8910 1.1895 191 201 192
-0.8441 3.8930 1.1901 182 190 182
-0.8535 3.8890 1.1889 191 199 191
-0.8626 3.8840 1.1874 187 195 187
-0.8728 3.8840 1.1874 189 198 191
-0.8833 3.8850 1.1877 190 199 192
-0.8945 3.8890 1.1889 190 199 192
-0.9033 3.8830 1.1871 191 202 197
-0.9114 3.8740 1.1843 194 207 203
-0.9188 3.8620 1.1806 198 210 209
-0.9261 3.8500 1.1770 201 215 214
-0.9338 3.8400 1.1739 201 215 216
-0.9415 3.8300 1.1709 202 213 216
-0.9513 3.8290 1.1706 197 208 211
-0.9614 3.8290 1.1706 199 210 213
-0.9700 3.8230 1.1687 202 211 214
-0.9765 3.8090 1.1644 202 211 214
-0.9813 3.7890 1.1583 199 210 213
-0.9884 3.7780 1.1550 204 215 218
-0.9976 3.7750 1.1541 203 212 215
-1.0057 3.7680 1.1519 203 212 214
-1.0124 3.7560 1.1482 200 209 211
-1.0187 3.7430 1.1443 200 210 209
-1.0272 3.7380 1.1427 197 207 206
-1.0346 3.7290 1.1400 194 204 201
-1.0410 3.7170 1.1363 195 203 200
-1.0474 3.7050 1.1327 191 199 196
-1.0541 3.6940 1.1293 187 196 191
-1.0604 3.6820 1.1256 187 196 191
-1.0660 3.6680 1.1213 191 200 195
-1.0724 3.6570 1.1180 197 204 200
-1.0800 3.6500 1.1158 198 205 201
-1.0890 3.6480 1.1152 195 202 198
-1.0959 3.6390 1.1125 189 196 192
-1.1034 3.6320 1.1103 188 195 191
-1.1105 3.6240 1.1079 194 201 197
-1.1176 3.6160 1.1054 190 197 193
-1.1240 3.6060 1.1024 188 197 192
-1.1313 3.5990 1.1002 189 197 194
-1.1408 3.5990 1.1002 195 202 199
-1.1490 3.5950 1.0990 196 203 200
-1.1556 3.5860 1.0963 200 207 204
-1.1608 3.5730 1.0923 197 204 201
-1.1673 3.5640 1.0895 194 202 201
-1.1747 3.5580 1.0877 200 208 207
-1.1834 3.5560 1.0871 195 203 202
-1.1898 3.5470 1.0843 199 209 208
-1.1961 3.5380 1.0816 195 204 199
-1.1996 3.5210 1.0764 188 196 189
-1.2054 3.5110 1.0733 182 190 182
-1.2119 3.5030 1.0709 182 189 177
-1.2187 3.4960 1.0688 186 191 179
-1.2244 3.4860 1.0657 183 191 176
-1.2294 3.4740 1.0620 184 192 177
-1.2360 3.4670 1.0599 180 187 175
-1.2434 3.4620 1.0584 180 187 175
-1.2507 3.4570 1.0568 181 189 174
-1.2572 3.4500 1.0547 187 193 176
-1.2630 3.4410 1.0519 183 189 171
-1.2714 3.4390 1.0513 182 191 172
-1.2771 3.4300 1.0486 183 191 174
-1.2835 3.4230 1.0464 191 199 184
-1.2891 3.4140 1.0437 186 195 183
-1.2962 3.4090 1.0422 188 197 186
-1.3002 3.3960 1.0382 186 195 184
-1.3045 3.3840 1.0345 187 196 185
-1.3111 3.3780 1.0327 188 197 186
-1.3196 3.3770 1.0324 181 190 179
-1.3262 3.3710 1.0305 175 184 172
-1.3311 3.3610 1.0275 175 184 172
-1.3376 3.3550 1.0257 173 182 170
-1.3444 3.3500 1.0241 188 197 185
-1.3524 3.3480 1.0235 185 194 183
-1.3576 3.3390 1.0208 186 195 184
-1.3644 3.3340 1.0192 191 200 189
-1.3703 3.3270 1.0171 187 196 185
-1.3778 3.3240 1.0162 191 200 189
-1.3803 3.3090 1.0116 192 201 189
-1.3823 3.2930 1.0067 190 199 187
0.2490 1.2990 0.3937 110 119 112
0.2462 1.3020 0.3946 115 124 117
0.2429 1.3030 0.3949 112 121 114
-0.6291 3.7730 1.1435 190 200 189
-0.6401 3.7790 1.1453 191 201 190
-0.6509 3.7840 1.1468 191 200 189
-0.6612 3.7860 1.1474 194 203 191
-0.6728 3.7950 1.1501 194 203 191
-0.6839 3.8010 1.1520 194 203 191
-0.6955 3.8100 1.1547 198 207 195
-0.7065 3.8150 1.1562 200 209 198
-0.7188 3.8270 1.1598 193 202 190
-0.7299 3.8320 1.1614 194 203 191
-0.7403 3.8340 1.1620 194 203 191
-0.7512 3.8380 1.1632 189 199 184
-0.7627 3.8450 1.1653 180 190 175
-0.7743 3.8520 1.1674 174 184 169
-0.7856 3.8580 1.1692 175 185 170
-0.7971 3.8640 1.1711 181 191 176
-0.8093 3.8740 1.1741 193 202 191
-0.8206 3.8790 1.1756 193 202 191
-0.8332 3.8900 1.1789 191 200 189
-0.8441 3.8930 1.1798 193 202 191
-0.8532 3.8880 1.1783 191 200 188
-0.8624 3.8830 1.1768 184 193 181
-0.8722 3.8810 1.1762 194 203 192
-0.8833 3.8850 1.1774 187 196 185
-0.8931 3.8830 1.1768 179 187 179
-0.9026 3.8800 1.1759 190 198 190
-0.9107 3.8710 1.1732 186 195 188
-0.9188 3.8620 1.1704 186 195 188
-0.9263 3.8510 1.1671 182 193 186
-0.9343 3.8420 1.1644 188 198 195
-0.9420 3.8320 1.1614 200 208 207
-0.9506 3.8260 1.1595 204 212 211
-0.9606 3.8260 1.1595 203 210 212
-0.9690 3.8190 1.1574 200 207 209
-0.9759 3.8070 1.1538 200 209 211
-0.9811 3.7880 1.1480 200 209 211
-0.9884 3.7780 1.1450 200 212 213
-0.9968 3.7720 1.1432 202 214 215
-1.0057 3.7680 1.1420 204 213 215
-1.0126 3.7570 1.1386 203 213 212
-1.0193 3.7450 1.1350 205 213 212
-1.0261 3.7340 1.1317 206 214 213
-1.0337 3.7260 1.1292 203 213 212
-1.0419 3.7200 1.1274 199 209 208
-1.0477 3.7060 1.1232 196 206 205
-1.0535 3.6920 1.1189 188 200 199
-1.0586 3.6760 1.1141 192 202 201
-1.0654 3.6660 1.1110 190 200 197
-1.0730 3.6590 1.1089 185 193 190
-1.0806 3.6520 1.1068 186 194 191
-1.0890 3.6480 1.1056 193 200 199
-1.0959 3.6390 1.1029 195 202 199
-1.1037 3.6330 1.1010 194 203 198
-1.1108 3.6250 1.0986 190 199 194
-1.1185 3.6190 1.0968 182 191 186
-1.1262 3.6130 1.0950 185 196 191
-1.1329 3.6040 1.0923 195 203 200
-1.1417 3.6020 1.0916 199 207 204
-1.1480 3.5920 1.0886 201 209 208
-1.1562 3.5880 1.0874 193 201 200
-1.1618 3.5760 1.0838 192 200 199
-1.1679 3.5660 1.0807 189 197 194
-1.1737 3.5550 1.0774 198 206 203
-1.1814 3.5500 1.0759 194 203 198
-1.1891 3.5450 1.0744 185 194 189
-1.1957 3.5370 1.0719 179 187 180
-1.2010 3.5250 1.0683 175 184 173
-1.2072 3.5160 1.0656 180 187 175
-1.2133 3.5070 1.0629 181 186 172
-1.2191 3.4970 1.0598 184 189 175
-1.2244 3.4860 1.0565 181 189 174
-1.2304 3.4770 1.0538 182 190 175
-1.2367 3.4690 1.0513 181 191 176
-1.2437 3.4630 1.0495 183 193 178
-1.2503 3.4560 1.0474 178 188 171
-1.2565 3.4480 1.0450 180 189 170
-1.2623 3.4390 1.0422 178 187 168
-1.2699 3.4350 1.0410 182 191 172
-1.2771 3.4300 1.0395 185 194 175
-1.2839 3.4240 1.0377 186 194 177
-1.2902 3.4170 1.0356 187 197 182
-1.2966 3.4100 1.0335 186 195 184
-1.3018 3.4000 1.0304 187 196 185
-1.3072 3.3910 1.0277 185 194 183
-1.3146 3.3870 1.0265 184 193 182
-1.3220 3.3830 1.0253 182 191 180
-1.3262 3.3710 1.0216 186 195 183
-1.3299 3.3580 1.0177 183 192 180
-1.3360 3.3510 1.0156 187 196 185
-1.3436 3.3480 1.0147 186 195 184
-1.3508 3.3440 1.0135 184 191 180
-1.3568 3.3370 1.0113 190 197 186
-1.3607 3.3250 1.0077 189 198 187
-1.3666 3.3180 1.0056 192 199 188
-1.3745 3.3160 1.0050 191 198 187
-1.3790 3.3060 1.0019 189 198 187
-0.6396 3.7760 1.1344 195 204 193
-0.6605 3.7820 1.1362 199 208 197
-0.6721 3.7910 1.1389 197 206 195
-0.6833 3.7980 1.1410 195 204 192
-0.6950 3.8070 1.1437 191 200 188
-0.7067 3.8160 1.1464 194 203 191
-0.7188 3.8270 1.1497 196 205 193
-0.7297 3.8310 1.1509 196 205 193
-0.7398 3.8310 1.1509 195 204 192
-0.7508 3.8360 1.1524 186 196 181
-0.7627 3.8450 1.1551 181 191 176
-0.7743 3.8520 1.1572 178 186 171
-0.7863 3.8610 1.1599 175 183 168
-0.7975 3.8660 1.1614 180 188 173
-0.8087 3.8710 1.1629 184 191 179
-0.8193 3.8730 1.1635 190 199 187
-0.8308 3.8790 1.1654 191 200 189
-0.8426 3.8860 1.1675 189 198 187
-0.8524 3.8840 1.1669 193 202 190
-0.8624 3.8830 1.1666 194 203 191
-0.8728 3.8840 1.1669 186 195 183
-0.8838 3.8870 1.1678 185 194 183
-0.8938 3.8860 1.1675 183 192 181
-0.9026 3.8800 1.1657 188 196 188
-0.9110 3.8720 1.1632 186 194 186
-0.9188 3.8620 1.1602 185 193 185
-0.9270 3.8540 1.1578 187 196 189
-0.9348 3.8440 1.1548 184 191 187
-0.9424 3.8340 1.1518 184 191 187
-0.9503 3.8250 1.1491 183 190 186
-0.9599 3.8230 1.1485 192 199 196
-0.9677 3.8140 1.1458 196 203 200
-0.9736 3.7980 1.1410 203 211 210
-0.9798 3.7830 1.1365 199 209 208
-0.9871 3.7730 1.1335 203 213 212
-0.9957 3.7680 1.1320 197 209 210
-1.0041 3.7620 1.1302 202 211 213
-1.0116 3.7530 1.1275 200 210 209
-1.0190 3.7440 1.1248 201 209 208
-1.0253 3.7310 1.1209 202 212 211
-1.0332 3.7240 1.1188 200 210 209
-1.0405 3.7150 1.1161 200 210 209
-1.0480 3.7070 1.1137 198 210 209
-1.0524 3.6880 1.1080 196 208 207
-1.0583 3.6750 1.1041 194 206 207
-1.0654 3.6660 1.1014 195 205 204
-1.0739 3.6620 1.1002 187 197 196
-1.0815 3.6550 1.0981 190 200 199
-1.0887 3.6470 1.0957 189 197 196
-1.0953 3.6370 1.0926 186 194 191
-1.1040 3.6340 1.0917 183 191 188
-1.1124 3.6300 1.0905 188 196 193
-1.1207 3.6260 1.0893 191 202 197
-1.1284 3.6200 1.0875 193 204 199
-1.1348 3.6100 1.0845 197 207 206
-1.1427 3.6050 1.0830 198 208 207
-1.1487 3.5940 1.0797 197 207 206
-1.1565 3.5890 1.0782 199 207 206
-1.1618 3.5760 1.0743 197 205 204
-1.1683 3.5670 1.0716 193 201 198
-1.1737 3.5550 1.0680 188 195 191
-1.1807 3.5480 1.0659 184 192 185
-1.1874 3.5400 1.0635 180 188 181
-1.1950 3.5350 1.0620 175 183 175
-1.2030 3.5310 1.0608 176 185 174
-1.2102 3.5250 1.0590 182 191 179
-1.2168 3.5170 1.0566 184 192 177
-1.2215 3.5040 1.0527 182 187 173
-1.2265 3.4920 1.0491 183 191 176
-1.2322 3.4820 1.0461 181 189 174
-1.2378 3.4720 1.0431 183 191 176
-1.2434 3.4620 1.0401 184 194 179
-1.2492 3.4530 1.0374 186 196 179
-1.2554 3.4450 1.0350 189 197 180
-1.2623 3.4390 1.0332 188 197 178
-1.2703 3.4360 1.0323 185 194 175
-1.2771 3.4300 1.0305 183 192 173
-1.2850 3.4270 1.0296 186 194 177
-1.2914 3.4200 1.0275 187 197 182
-1.2985 3.4150 1.0260 187 196 185
-1.3025 3.4020 1.0220 186 195 184
-1.3084 3.3940 1.0196 185 194 183
-1.3166 3.3920 1.0190 187 196 185
-1.3236 3.3870 1.0175 184 193 182
-1.3285 3.3770 1.0145 189 198 187
-1.3311 3.3610 1.0097 192 201 189
-1.3364 3.3520 1.0070 191 198 187
-1.3420 3.3440 1.0046 187 194 183
-1.3500 3.3420 1.0040 184 190 182
-1.3543 3.3310 1.0007 190 197 186
-1.3615 3.3270 0.9995 190 197 186
-1.3653 3.3150 0.9959 187 194 183
-1.3736 3.3140 0.9956 192 199 188
-1.3786 3.3050 0.9929 187 194 183
-0.6392 3.7740 1.1238 194 203 192
-0.6490 3.7730 1.1235 197 206 195
-0.6602 3.7800 1.1256 198 207 196
-0.6717 3.7890 1.1283 196 204 196
-0.6832 3.7970 1.1307 197 206 195
-0.6944 3.8040 1.1328 198 205 194
-0.7061 3.8130 1.1354 192 201 190
-0.7177 3.8210 1.1378 194 203 191
-0.7287 3.8260 1.1393 198 207 195
-0.7396 3.8300 1.1405 194 203 191
-0.7512 3.8380 1.1429 189 199 184
-0.7629 3.8460 1.1453 177 187 172
-0.7747 3.8540 1.1477 176 184 167
-0.7856 3.8580 1.1489 179 184 170
-0.7966 3.8620 1.1500 177 182 168
-0.8070 3.8630 1.1503 186 194 179
-0.8176 3.8650 1.1509 192 199 187
-0.8300 3.8750 1.1539 195 204 192
-0.8415 3.8810 1.1557 194 203 191
-0.8526 3.8850 1.1569 191 200 188
-0.8617 3.8800 1.1554 195 204 192
-0.8733 3.8860 1.1572 194 201 189
-0.8842 3.8890 1.1581 184 191 180
-0.8947 3.8900 1.1584 192 199 188
-0.9033 3.8830 1.1563 182 191 180
-0.9114 3.8740 1.1536 184 193 182
-0.9200 3.8670 1.1515 184 193 182
-0.9282 3.8590 1.1491 188 197 186
-0.9353 3.8460 1.1453 182 190 182
-0.9434 3.8380 1.1429 188 194 186
-0.9513 3.8290 1.1402 186 192 184
-0.9614 3.8290 1.1402 191 197 190
-0.9682 3.8160 1.1363 186 194 187
-0.9739 3.7990 1.1313 191 199 192
-0.9795 3.7820 1.1262 193 202 197
-0.9869 3.7720 1.1232 195 206 201
-0.9955 3.7670 1.1218 200 211 206
-1.0043 3.7630 1.1206 197 207 204
-1.0116 3.7530 1.1176 198 208 205
-1.0193 3.7450 1.1152 199 209 206
-1.0247 3.7290 1.1104 202 212 209
-1.0318 3.7190 1.1075 199 211 210
-1.0391 3.7100 1.1048 198 210 211
-1.0474 3.7050 1.1033 200 212 213
-1.0524 3.6880 1.0982 200 212 213
-1.0581 3.6740 1.0941 201 212 215
-1.0651 3.6650 1.0914 198 210 211
-1.0742 3.6630 1.0908 197 209 210
-1.0815 3.6550 1.0884 197 206 209
-1.0890 3.6480 1.0863 194 200 202
-1.0947 3.6350 1.0824 197 203 205
-1.1025 3.6290 1.0807 192 200 199
-1.1108 3.6250 1.0795 199 206 205
-1.1207 3.6260 1.0798 197 205 202
-1.1284 3.6200 1.0780 197 207 204
-1.1341 3.6080 1.0744 195 205 204
-1.1411 3.6000 1.0720 196 206 205
-1.1471 3.5890 1.0687 193 203 200
-1.1562 3.5880 1.0684 198 209 204
-1.1618 3.5760 1.0649 186 197 192
-1.1686 3.5680 1.0625 188 197 190
-1.1754 3.5600 1.0601 184 192 185
-1.1824 3.5530 1.0580 179 188 177
-1.1894 3.5460 1.0559 179 188 177
-1.1954 3.5360 1.0530 180 189 177
-1.2037 3.5330 1.0521 182 192 177
-1.2109 3.5270 1.0503 183 191 176
-1.2171 3.5180 1.0476 187 195 180
-1.2222 3.5060 1.0440 182 187 173
-1.2283 3.4970 1.0414 189 194 182
-1.2340 3.4870 1.0384 187 192 180
-1.2392 3.4760 1.0351 186 194 179
-1.2434 3.4620 1.0309 185 195 180
-1.2489 3.4520 1.0279 188 198 181
-1.2547 3.4430 1.0253 181 191 174
-1.2627 3.4400 1.0244 183 194 175
-1.2699 3.4350 1.0229 185 195 178
-1.2771 3.4300 1.0214 183 193 176
-1.2854 3.4280 1.0208 186 196 179
-1.2918 3.4210 1.0187 189 199 184
-1.2974 3.4120 1.0160 183 192 180
-1.3021 3.4010 1.0128 186 195 183
-1.3088 3.3950 1.0110 186 196 181
-1.3170 3.3930 1.0104 185 195 180
-1.3239 3.3880 1.0089 187 197 182
-1.3293 3.3790 1.0062 186 196 181
-1.3323 3.3640 1.0017 189 198 186
-1.3368 3.3530 0.9985 189 196 184
-1.3412 3.3420 0.9952 186 193 181
-1.3492 3.3400 0.9946 189 196 185
-1.3543 3.3310 0.9919 190 196 188
-1.3611 3.3260 0.9904 187 193 185
-1.3666 3.3180 0.9880 194 200 192
-1.3728 3.3120 0.9863 195 201 193
-1.3765 3.3000 0.9827 189 196 185
-0.6490 3.7730 1.1136 194 203 192
-0.6602 3.7800 1.1156 197 206 195
-0.6714 3.7870 1.1177 196 204 196
-0.6828 3.7950 1.1201 197 205 197
-0.6943 3.8030 1.1224 195 201 193
-0.7056 3.8100 1.1245 194 203 192
-0.7164 3.8140 1.1257 193 202 190
-0.7274 3.8190 1.1271 191 200 188
-0.7390 3.8270 1.1295 195 205 190
-0.7510 3.8370 1.1325 193 203 186
-0.7625 3.8440 1.1345 184 194 177
-0.7739 3.8500 1.1363 180 189 170
-0.7850 3.8550 1.1378 181 189 172
-0.7956 3.8570 1.1384 182 190 173
-0.8058 3.8570 1.1384 181 189 172
-0.8170 3.8620 1.1398 189 197 182
-0.8293 3.8720 1.1428 192 201 189
-0.8413 3.8800 1.1452 194 203 191
-0.8528 3.8860 1.1469 191 200 188
-0.8622 3.8820 1.1457 191 200 189
-0.8735 3.8870 1.1472 191 200 189
-0.8840 3.8880 1.1475 187 196 185
-0.8945 3.8890 1.1478 185 194 183
-0.9036 3.8840 1.1463 187 194 183
-0.9107 3.8710 1.1425 191 198 187
-0.9190 3.8630 1.1401 189 198 187
-0.9273 3.8550 1.1378 187 196 185
-0.9348 3.8440 1.1345 191 197 189
-0.9427 3.8350 1.1319 190 195 184
-0.9508 3.8270 1.1295 188 193 182
-0.9606 3.8260 1.1292 193 197 190
-0.9679 3.8150 1.1260 186 192 184
-0.9739 3.7990 1.1212 188 196 188
-0.9798 3.7830 1.1165 186 195 188
-0.9869 3.7720 1.1133 183 192 185
-0.9952 3.7660 1.1115 180 191 184
-1.0033 3.7590 1.1094 188 199 192
-1.0105 3.7490 1.1065 191 200 195
-1.0187 3.7430 1.1047 199 208 203
-1.0250 3.7300 1.1009 205 213 210
-1.0321 3.7200 1.0979 204 214 211
-1.0391 3.7100 1.0950 197 207 206
-1.0472 3.7040 1.0932 196 206 205
-1.0532 3.6910 1.0894 196 208 209
-1.0592 3.6780 1.0855 192 203 206
-1.0663 3.6690 1.0829 196 205 208
-1.0745 3.6640 1.0814 200 211 214
-1.0815 3.6550 1.0787 201 210 213
-1.0884 3.6460 1.0761 202 209 212
-1.0953 3.6370 1.0734 204 210 212
-1.1040 3.6340 1.0725 199 206 208
-1.1120 3.6290 1.0711 198 206 205
-1.1207 3.6260 1.0702 192 200 197
-1.1274 3.6170 1.0675 190 200 197
-1.1329 3.6040 1.0637 191 201 200
-1.1405 3.5980 1.0619 193 203 200
-1.1474 3.5900 1.0596 190 201 196
-1.1546 3.5830 1.0575 185 196 189
-1.1602 3.5710 1.0540 183 192 185
-1.1669 3.5630 1.0516 182 190 183
-1.1763 3.5630 1.0516 182 190 182
-1.1844 3.5590 1.0504 180 189 177
-1.1911 3.5510 1.0480 180 189 177
-1.1967 3.5400 1.0448 181 191 176
-1.2040 3.5340 1.0430 184 194 179
-1.2109 3.5270 1.0410 177 185 170
-1.2168 3.5170 1.0380 185 190 178
-1.2229 3.5080 1.0354 185 190 178
-1.2290 3.4990 1.0327 191 194 182
-1.2340 3.4870 1.0292 193 196 184
-1.2396 3.4770 1.0262 188 193 181
-1.2441 3.4640 1.0224 187 194 182
-1.2507 3.4570 1.0203 186 196 181
-1.2562 3.4470 1.0174 184 194 177
-1.2627 3.4400 1.0153 181 192 173
-1.2691 3.4330 1.0132 186 196 179
-1.2774 3.4310 1.0126 180 190 175
-1.2854 3.4280 1.0117 185 195 180
-1.2918 3.4210 1.0097 187 197 182
-1.2962 3.4090 1.0061 186 195 183
-1.3010 3.3980 1.0029 181 190 178
-1.3069 3.3900 1.0005 189 199 184
-1.3154 3.3890 1.0002 186 196 181
-1.3228 3.3850 0.9991 183 193 178
-1.3297 3.3800 0.9976 181 190 178
-1.3327 3.3650 0.9932 188 197 185
-1.3364 3.3520 0.9893 186 193 181
-1.3412 3.3420 0.9864 190 197 186
-1.3504 3.3430 0.9867 184 193 182
-1.3568 3.3370 0.9849 184 193 182
-1.3639 3.3330 0.9837 187 196 185
-1.3674 3.3200 0.9799 186 195 184
-1.3732 3.3130 0.9778 185 194 183
-1.3770 3.3010 0.9743 189 198 187
-1.3819 3.2920 0.9716 189 198 187
0.2466 1.3040 0.3814 77 87 78
0.2433 1.3050 0.3817 84 93 86
0.2370 1.3080 0.3826 101 108 104
-0.6490 3.7730 1.1036 195 204 193
-0.6605 3.7820 1.1062 195 204 193
-0.6723 3.7920 1.1092 198 206 198
-0.6830 3.7960 1.1103 194 202 194
-0.6946 3.8050 1.1130 198 206 198
-0.7048 3.8060 1.1133 193 202 191
-0.7151 3.8070 1.1135 196 205 194
-0.7255 3.8090 1.1141 193 202 190
-0.7374 3.8190 1.1171 193 202 190
-0.7499 3.8310 1.1206 193 203 188
-0.7613 3.8380 1.1226 192 202 187
-0.7729 3.8450 1.1247 186 194 177
-0.7844 3.8520 1.1267 183 193 178
-0.7958 3.8580 1.1285 184 192 175
-0.8062 3.8590 1.1288 182 192 175
-0.8176 3.8650 1.1305 193 203 188
-0.8295 3.8730 1.1329 195 205 190
-0.8406 3.8770 1.1340 193 203 188
-0.8517 3.8810 1.1352 196 205 193
-0.8615 3.8790 1.1346 192 201 189
-0.8726 3.8830 1.1358 187 196 184
-0.8835 3.8860 1.1367 187 196 184
-0.8935 3.8850 1.1364 191 200 188
-0.9024 3.8790 1.1346 188 197 186
-0.9098 3.8670 1.1311 189 198 187
-0.9186 3.8610 1.1293 190 199 188
-0.9258 3.8490 1.1258 188 197 186
-0.9345 3.8430 1.1241 191 198 187
-0.9427 3.8350 1.1217 192 199 187
-0.9511 3.8280 1.1197 191 196 184
-0.9591 3.8200 1.1174 191 196 185
-0.9669 3.8110 1.1147 188 195 183
-0.9744 3.8010 1.1118 182 191 179
-0.9808 3.7870 1.1077 182 191 179
-0.9874 3.7740 1.1039 184 195 182
-0.9947 3.7640 1.1010 184 195 182
-1.0022 3.7550 1.0983 186 195 184
-1.0099 3.7470 1.0960 183 192 181
-1.0185 3.7420 1.0945 184 192 184
-1.0250 3.7300 1.0910 182 190 182
-1.0329 3.7230 1.0890 194 202 195
-1.0408 3.7160 1.0869 197 204 200
-1.0486 3.7090 1.0849 201 208 204
-1.0544 3.6950 1.0808 202 210 207
-1.0598 3.6800 1.0764 200 210 207
-1.0666 3.6700 1.0735 196 206 205
-1.0754 3.6670 1.0726 197 206 208
-1.0818 3.6560 1.0694 198 207 209
-1.0896 3.6500 1.0676 197 206 209
-1.0959 3.6390 1.0644 200 209 212
-1.1046 3.6360 1.0635 201 210 212
-1.1117 3.6280 1.0612 196 205 207
-1.1194 3.6220 1.0594 193 203 200
-1.1256 3.6110 1.0562 189 200 195
-1.1323 3.6020 1.0536 191 200 193
-1.1398 3.5960 1.0518 184 193 186
-1.1480 3.5920 1.0507 183 191 183
-1.1543 3.5820 1.0477 186 195 184
-1.1615 3.5750 1.0457 182 191 179
-1.1676 3.5650 1.0428 177 186 174
-1.1773 3.5660 1.0431 180 189 177
-1.1844 3.5590 1.0410 180 190 175
-1.1918 3.5530 1.0393 174 184 169
-1.1978 3.5430 1.0363 180 190 173
-1.2027 3.5300 1.0325 181 191 174
-1.2096 3.5230 1.0305 176 186 169
-1.2147 3.5110 1.0270 179 187 172
-1.2233 3.5090 1.0264 185 193 178
-1.2293 3.5000 1.0238 185 190 178
-1.2350 3.4900 1.0208 188 193 182
-1.2399 3.4780 1.0173 184 189 178
-1.2459 3.4690 1.0147 192 197 186
-1.2536 3.4650 1.0135 189 196 184
-1.2583 3.4530 1.0100 186 196 181
-1.2627 3.4400 1.0062 184 194 179
-1.2691 3.4330 1.0042 187 197 182
-1.2774 3.4310 1.0036 187 197 182
-1.2842 3.4250 1.0018 186 195 183
-1.2899 3.4160 0.9992 183 192 180
-1.2939 3.4030 0.9954 182 191 179
-1.3006 3.3970 0.9936 188 197 185
-1.3072 3.3910 0.9919 190 200 185
-1.3154 3.3890 0.9913 189 199 184
-1.3212 3.3810 0.9889 186 195 183
-1.3278 3.3750 0.9872 183 192 180
-1.3331 3.3660 0.9846 187 196 184
-1.3384 3.3570 0.9819 187 196 185
-1.3440 3.3490 0.9796 191 200 189
-1.3520 3.3470 0.9790 190 199 188
-1.3568 3.3370 0.9761 192 201 190
-1.3615 3.3270 0.9731 193 202 191
-1.3649 3.3140 0.9693 191 200 189
-1.3720 3.3100 0.9682 192 201 190
0.2498 1.3030 0.3777 80 89 82
0.2464 1.3030 0.3777 91 99 92
0.2431 1.3040 0.3780 88 96 89
0.2399 1.3050 0.3783 89 97 90
0.2368 1.3070 0.3788 97 104 100
0.2339 1.3100 0.3797 103 110 106
-0.6493 3.7750 1.0942 195 204 193
-0.6610 3.7850 1.0971 194 203 192
-0.6728 3.7950 1.1000 196 204 196
-0.6837 3.8000 1.1015 193 201 193
-0.6948 3.8060 1.1032 192 200 192
-0.7052 3.8080 1.1038 195 204 193
-0.7154 3.8090 1.1041 197 206 195
-0.7253 3.8080 1.1038 196 205 193
-0.7371 3.8170 1.1064 192 201 189
-0.7491 3.8270 1.1093 194 204 189
-0.7600 3.8310 1.1104 194 204 189
-0.7707 3.8340 1.1113 190 198 183
-0.7824 3.8420 1.1136 186 196 181
-0.7946 3.8520 1.1165 189 197 182
-0.8056 3.8560 1.1177 189 199 184
-0.8174 3.8640 1.1200 192 202 187
-0.8280 3.8660 1.1206 196 206 191
-0.8389 3.8690 1.1215 194 204 189
-0.8495 3.8710 1.1220 193 202 190
-0.8608 3.8760 1.1235 193 204 191
-0.8715 3.8780 1.1241 190 199 187
-0.8817 3.8780 1.1241 188 197 185
-0.8915 3.8760 1.1235 190 199 187
-0.9008 3.8720 1.1223 187 196 184
-0.9084 3.8610 1.1191 190 199 188
-0.9162 3.8510 1.1162 191 200 189
-0.9239 3.8410 1.1133 193 202 191
-0.9333 3.8380 1.1125 190 199 188
-0.9417 3.8310 1.1104 193 200 188
-0.9501 3.8240 1.1084 192 199 187
-0.9574 3.8130 1.1052 187 194 182
-0.9657 3.8060 1.1032 177 184 172
-0.9731 3.7960 1.1003 175 185 170
-0.9805 3.7860 1.0974 183 193 178
-0.9866 3.7710 1.0931 181 191 176
-0.9942 3.7620 1.0904 187 197 182
-1.0017 3.7530 1.0878 179 188 176
-1.0105 3.7490 1.0867 185 194 182
-1.0182 3.7410 1.0844 184 193 181
-1.0258 3.7330 1.0820 184 193 182
-1.0332 3.7240 1.0794 186 193 182
-1.0410 3.7170 1.0774 188 196 189
-1.0477 3.7060 1.0742 187 195 188
-1.0538 3.6930 1.0704 188 196 189
-1.0601 3.6810 1.0670 189 198 193
-1.0674 3.6730 1.0647 201 209 206
-1.0754 3.6670 1.0629 201 211 210
-1.0824 3.6580 1.0603 194 203 205
-1.0896 3.6500 1.0580 195 204 206
-1.0962 3.6400 1.0551 193 202 205
-1.1046 3.6360 1.0539 192 201 203
-1.1124 3.6300 1.0522 194 204 203
-1.1188 3.6200 1.0493 194 205 200
-1.1253 3.6100 1.0464 186 195 188
-1.1323 3.6020 1.0441 179 189 180
-1.1398 3.5960 1.0423 172 180 172
-1.1487 3.5940 1.0418 177 186 175
-1.1536 3.5800 1.0377 177 186 174
-1.1615 3.5750 1.0362 179 189 174
-1.1666 3.5620 1.0325 177 187 172
-1.1747 3.5580 1.0313 182 192 177
-1.1817 3.5510 1.0293 178 188 173
-1.1898 3.5470 1.0281 179 189 174
-1.1974 3.5420 1.0267 180 190 173
-1.2020 3.5280 1.0226 175 185 168
-1.2089 3.5210 1.0206 169 179 162
-1.2147 3.5110 1.0177 174 182 165
-1.2222 3.5060 1.0162 180 188 173
-1.2290 3.4990 1.0142 191 196 184
-1.2361 3.4930 1.0125 189 194 182
-1.2410 3.4810 1.0090 190 195 183
-1.2462 3.4700 1.0058 186 191 180
-1.2529 3.4630 1.0038 188 195 183
-1.2580 3.4520 1.0006 187 195 180
-1.2630 3.4410 0.9974 185 195 180
-1.2699 3.4350 0.9957 186 196 181
-1.2789 3.4350 0.9957 185 194 182
-1.2854 3.4280 0.9936 184 193 181
-1.2902 3.4170 0.9904 188 197 186
-1.2951 3.4060 0.9873 190 199 187
-1.3006 3.3970 0.9847 191 200 188
-1.3076 3.3920 0.9832 187 197 182
-1.3158 3.3900 0.9826 189 199 184
-1.3216 3.3820 0.9803 194 203 191
-1.3285 3.3770 0.9789 187 196 185
-1.3339 3.3680 0.9762 189 198 187
-1.3396 3.3600 0.9739 191 200 189
-1.3452 3.3520 0.9716 196 205 194
-1.3516 3.3460 0.9699 192 201 190
-1.3576 3.3390 0.9678 191 200 189
-1.3615 3.3270 0.9644 190 199 188
-1.3657 3.3160 0.9612 187 195 187
-1.3728 3.3120 0.9600 189 197 189
-1.4063 3.2680 0.9473 187 196 185
0.2528 1.3010 0.3737 93 104 97
0.2494 1.3010 0.3737 94 102 95
0.2458 1.3000 0.3734 87 95 88
0.2427 1.3020 0.3740 89 97 90
0.2395 1.3030 0.3742 88 93 89
0.2366 1.3060 0.3751 90 95 91
0.2335 1.3080 0.3757 98 105 101
0.2306 1.3110 0.3765 104 111 107
-0.6603 3.7810 1.0860 189 198 187
-0.6726 3.7940 1.0897 187 196 185
-0.6835 3.7990 1.0911 195 204 193
-0.6952 3.8080 1.0937 196 205 194
-0.7048 3.8060 1.0931 198 207 196
-0.7151 3.8070 1.0934 197 206 195
-0.7243 3.8030 1.0923 198 207 196
-0.7361 3.8120 1.0949 196 205 194
-0.7471 3.8170 1.0963 196 203 192
-0.7576 3.8190 1.0969 193 200 189
-0.7674 3.8180 1.0966 192 199 187
-0.7802 3.8310 1.1003 194 201 189
-0.7929 3.8440 1.1041 192 199 187
-0.8039 3.8480 1.1052 194 202 187
-0.8157 3.8560 1.1075 195 203 188
-0.8265 3.8590 1.1084 196 204 189
-0.8384 3.8670 1.1107 194 202 187
-0.8486 3.8670 1.1107 191 201 186
-0.8610 3.8770 1.1135 190 199 187
-0.8708 3.8750 1.1130 188 197 185
-0.8808 3.8740 1.1127 184 195 182
-0.8901 3.8700 1.1115 191 202 189
-0.8996 3.8670 1.1107 190 199 187
-0.9084 3.8610 1.1089 189 198 186
-0.9159 3.8500 1.1058 191 200 188
-0.9244 3.8430 1.1038 193 202 190
-0.9338 3.8400 1.1029 190 199 187
-0.9424 3.8340 1.1012 188 197 185
-0.9496 3.8220 1.0977 186 196 181
-0.9569 3.8110 1.0946 178 188 173
-0.9649 3.8030 1.0923 179 189 172
-0.9721 3.7920 1.0891 177 185 168
-0.9795 3.7820 1.0863 185 193 178
-0.9869 3.7720 1.0834 190 200 185
-0.9944 3.7630 1.0808 187 197 182
-1.0022 3.7550 1.0785 187 194 182
-1.0099 3.7470 1.0762 192 197 185
-1.0185 3.7420 1.0748 188 196 181
-1.0247 3.7290 1.0710 188 193 179
-1.0329 3.7230 1.0693 190 196 179
-1.0408 3.7160 1.0673 184 192 177
-1.0489 3.7100 1.0656 188 196 181
-1.0546 3.6960 1.0616 183 192 180
-1.0606 3.6830 1.0578 180 189 178
-1.0660 3.6680 1.0535 177 186 179
-1.0742 3.6630 1.0521 184 193 186
-1.0818 3.6560 1.0501 188 197 192
-1.0908 3.6540 1.0495 194 202 199
-1.0971 3.6430 1.0463 201 209 208
-1.1037 3.6330 1.0435 199 207 204
-1.1111 3.6260 1.0414 194 202 199
-1.1191 3.6210 1.0400 182 190 183
-1.1268 3.6150 1.0383 180 188 180
-1.1341 3.6080 1.0363 180 190 175
-1.1395 3.5950 1.0325 179 189 174
-1.1474 3.5900 1.0311 181 189 174
-1.1530 3.5780 1.0277 179 187 172
-1.1618 3.5760 1.0271 178 186 169
-1.1666 3.5620 1.0231 179 187 172
-1.1740 3.5560 1.0213 176 186 171
-1.1801 3.5460 1.0185 181 191 174
-1.1891 3.5450 1.0182 180 190 175
-1.1964 3.5390 1.0165 177 187 172
-1.2023 3.5290 1.0136 171 181 164
-1.2092 3.5220 1.0116 166 176 159
-1.2154 3.5130 1.0090 169 180 161
-1.2212 3.5030 1.0061 168 178 161
-1.2276 3.4950 1.0038 182 192 177
-1.2350 3.4900 1.0024 186 196 181
-1.2407 3.4800 0.9995 185 194 182
-1.2462 3.4700 0.9966 183 192 181
-1.2521 3.4610 0.9941 184 193 181
-1.2580 3.4520 0.9915 184 193 181
-1.2645 3.4450 0.9895 188 197 185
-1.2714 3.4390 0.9877 187 197 182
-1.2789 3.4350 0.9866 188 197 185
-1.2846 3.4260 0.9840 187 196 184
